8.000000 81.000000 11.453639 
31.000000 51.000000 33.012249 
26.000000 88.000000 32.800682 
48.000000 77.000000 22.190620 
70.000000 60.000000 24.833900 
28.000000 56.000000 25.326771 
17.000000 77.000000 18.950579 
5.000000 68.000000 7.126785 
1.000000 74.000000 7.019418 
23.000000 77.000000 16.470228 
19.000000 72.000000 14.720171 
69.000000 39.000000 21.963282 
46.000000 74.000000 23.279484 
46.000000 88.000000 19.199026 
32.000000 36.000000 28.707115 
30.000000 73.000000 26.165037 
29.000000 93.000000 28.464373 
22.000000 66.000000 28.892839 
24.000000 74.000000 18.157541 
21.000000 49.000000 27.006952 
47.000000 60.000000 31.172594 
39.000000 46.000000 30.665051 
0.000000 82.000000 7.019418 
35.000000 43.000000 31.798538 
17.000000 69.000000 17.198133 
27.000000 84.000000 25.207523 
14.000000 69.000000 12.963557 
18.000000 61.000000 25.882261 
55.000000 47.000000 18.985678 
68.000000 45.000000 20.639000 
23.000000 64.000000 28.762444 
73.000000 50.000000 24.813009 
20.000000 79.000000 21.878412 
33.000000 33.000000 24.976954 
42.000000 60.000000 33.546181 
16.000000 91.000000 19.839426 
46.000000 85.000000 22.772686 
9.000000 83.000000 11.716012 
48.000000 57.000000 29.253731 
16.000000 62.000000 21.789948 
51.000000 75.000000 24.931961 
65.000000 59.000000 28.058044 
73.000000 38.000000 22.594536 
0.000000 74.000000 7.019418 
20.000000 97.000000 23.337078 
14.000000 75.000000 16.019878 
54.000000 85.000000 21.727028 
68.000000 55.000000 22.888853 
41.000000 77.000000 26.703545 
31.000000 58.000000 27.660828 
52.000000 60.000000 26.043896 
28.000000 76.000000 24.433613 
41.000000 67.000000 24.246071 
70.000000 59.000000 24.366127 
75.000000 68.000000 24.365604 
16.000000 97.000000 20.607595 
32.000000 87.000000 28.988575 
74.000000 52.000000 28.184122 
10.000000 89.000000 15.489144 
62.000000 59.000000 30.923908 
35.000000 63.000000 26.916920 
35.000000 48.000000 32.299702 
40.000000 84.000000 26.050327 
66.000000 47.000000 18.853416 
61.000000 70.000000 27.948929 
37.000000 68.000000 24.850477 
4.000000 83.000000 7.811612 
36.000000 43.000000 32.644348 
39.000000 72.000000 23.672186 
52.000000 54.000000 25.178181 
71.000000 41.000000 19.388216 
51.000000 66.000000 27.856363 
66.000000 62.000000 28.718493 
26.000000 105.000000 29.248096 
16.000000 73.000000 12.227796 
5.000000 63.000000 7.034778 
47.000000 50.000000 26.677261 
37.000000 92.000000 26.308218 
60.000000 59.000000 32.219223 
24.000000 84.000000 26.623833 
29.000000 84.000000 27.521790 
50.000000 72.000000 27.771776 
23.000000 50.000000 27.867649 
38.000000 69.000000 24.582413 
16.000000 102.000000 21.247736 
42.000000 48.000000 30.058926 
46.000000 70.000000 26.410568 
38.000000 41.000000 30.046581 
49.000000 85.000000 19.767673 
37.000000 59.000000 29.616955 
73.000000 67.000000 25.332262 
42.000000 69.000000 25.252619 
69.000000 60.000000 26.120249 
26.000000 56.000000 25.781910 
64.000000 59.000000 28.548300 
64.000000 51.000000 23.271957 
29.000000 39.000000 22.769804 
48.000000 84.000000 20.790350 
39.000000 33.000000 21.484995 
28.000000 91.000000 31.695700 
41.000000 50.000000 32.234814 
31.000000 45.000000 25.499886 
44.000000 57.000000 34.029831 
14.000000 101.000000 19.780733 
50.000000 83.000000 22.364147 
14.000000 54.000000 20.475504 
41.000000 81.000000 32.132862 
11.000000 60.000000 11.519375 
10.000000 68.000000 9.110361 
31.000000 33.000000 25.648359 
36.000000 66.000000 25.454201 
48.000000 55.000000 27.897379 
29.000000 86.000000 29.837990 
11.000000 55.000000 16.495523 
47.000000 89.000000 18.968334 
15.000000 62.000000 20.802277 
51.000000 61.000000 26.805010 
54.000000 69.000000 25.035261 
25.000000 66.000000 30.725849 
10.000000 65.000000 8.713613 
34.000000 44.000000 30.853485 
25.000000 97.000000 29.312397 
72.000000 61.000000 24.675905 
45.000000 50.000000 27.542891 
10.000000 73.000000 12.368693 
26.000000 95.000000 27.786043 
27.000000 49.000000 26.956562 
25.000000 83.000000 24.033092 
50.000000 62.000000 28.402132 
32.000000 96.000000 28.432650 
18.000000 101.000000 22.484449 
75.000000 65.000000 24.383497 
33.000000 73.000000 29.678375 
29.000000 103.000000 26.007996 
38.000000 55.000000 33.703815 
29.000000 89.000000 31.546457 
5.000000 74.000000 7.019447 
49.000000 47.000000 22.797741 
71.000000 61.000000 25.396259 
73.000000 61.000000 23.864613 
21.000000 56.000000 23.888285 
23.000000 93.000000 27.476204 
31.000000 35.000000 27.348394 
9.000000 95.000000 15.574944 
62.000000 61.000000 31.581099 
16.000000 61.000000 22.655672 
57.000000 59.000000 28.815107 
13.000000 95.000000 18.304426 
5.000000 64.000000 7.045012 
9.000000 63.000000 7.176719 
64.000000 64.000000 31.898991 
5.000000 93.000000 12.589403 
19.000000 74.000000 13.767568 
12.000000 87.000000 15.356933 
11.000000 69.000000 9.859286 
44.000000 47.000000 27.077408 
27.000000 109.000000 28.560907 
59.000000 54.000000 22.820602 
68.000000 62.000000 28.154875 
74.000000 45.000000 20.445152 
73.000000 43.000000 17.957783 
17.000000 91.000000 20.521797 
26.000000 108.000000 29.982206 
37.000000 87.000000 25.118874 
15.000000 94.000000 19.541140 
33.000000 43.000000 28.415932 
66.000000 48.000000 19.685463 
11.000000 75.000000 15.968391 
27.000000 89.000000 32.032600 
19.000000 75.000000 14.706108 
24.000000 67.000000 30.703506 
21.000000 58.000000 23.093206 
22.000000 45.000000 23.779816 
10.000000 82.000000 13.348625 
27.000000 86.000000 29.291273 
3.000000 74.000000 7.019418 
41.000000 93.000000 23.799641 
10.000000 64.000000 8.379010 
10.000000 85.000000 12.905127 
7.000000 90.000000 13.570061 
33.000000 55.000000 33.454773 
18.000000 104.000000 22.894302 
73.000000 42.000000 18.348797 
60.000000 68.000000 28.440420 
26.000000 77.000000 20.158350 
34.000000 98.000000 25.369322 
4.000000 68.000000 7.049393 
22.000000 47.000000 26.768265 
7.000000 65.000000 7.110984 
12.000000 95.000000 17.622055 
4.000000 87.000000 9.620358 
0.000000 84.000000 7.019418 
47.000000 63.000000 30.720270 
65.000000 49.000000 22.307865 
34.000000 43.000000 30.431601 
32.000000 98.000000 27.315031 
71.000000 55.000000 24.293980 
32.000000 77.000000 29.189968 
35.000000 88.000000 27.441160 
38.000000 57.000000 31.800056 
42.000000 66.000000 24.633635 
5.000000 91.000000 12.333347 
20.000000 102.000000 23.977221 
51.000000 51.000000 25.391554 
42.000000 73.000000 23.070951 
18.000000 102.000000 22.612478 
12.000000 80.000000 19.679949 
22.000000 77.000000 17.453995 
21.000000 44.000000 23.204134 
27.000000 57.000000 25.050196 
24.000000 81.000000 21.763952 
64.000000 43.000000 18.581039 
25.000000 90.000000 29.819931 
8.000000 91.000000 14.380460 
62.000000 53.000000 23.663582 
74.000000 55.000000 26.275185 
47.000000 68.000000 28.075987 
14.000000 99.000000 19.498911 
41.000000 87.000000 22.698259 
50.000000 85.000000 20.520374 
12.000000 83.000000 15.635090 
23.000000 72.000000 19.557528 
54.000000 75.000000 22.473349 
22.000000 94.000000 25.917030 
0.000000 83.000000 7.019418 
31.000000 85.000000 29.205547 
28.000000 83.000000 25.014193 
32.000000 57.000000 28.978649 
21.000000 82.000000 25.025816 
56.000000 67.000000 26.542511 
43.000000 91.000000 20.079330 
13.000000 78.000000 20.968737 
7.000000 94.000000 14.082173 
30.000000 69.000000 28.489952 
13.000000 56.000000 20.237841 
75.000000 49.000000 23.927355 
50.000000 50.000000 26.608553 
11.000000 66.000000 10.385279 
30.000000 78.000000 24.586475 
14.000000 64.000000 16.204491 
63.000000 52.000000 23.324350 
50.000000 64.000000 30.007048 
34.000000 86.000000 26.260885 
30.000000 66.000000 25.331936 
21.000000 60.000000 22.964548 
54.000000 82.000000 21.291264 
19.000000 53.000000 24.544113 
68.000000 56.000000 23.546896 
35.000000 31.000000 20.948795 
53.000000 57.000000 23.823561 
53.000000 82.000000 21.298052 
25.000000 62.000000 25.451101 
31.000000 34.000000 26.485481 
35.000000 80.000000 30.427685 
65.000000 63.000000 30.541849 
31.000000 87.000000 30.025648 
70.000000 63.000000 27.055407 
75.000000 60.000000 24.331032 
53.000000 48.000000 23.347361 
52.000000 75.000000 24.314604 
68.000000 47.000000 22.370415 
22.000000 102.000000 25.402763 
53.000000 56.000000 23.589247 
73.000000 68.000000 25.538321 
72.000000 48.000000 22.796124 
25.000000 53.000000 28.486012 
46.000000 57.000000 31.798479 
29.000000 54.000000 27.118225 
20.000000 86.000000 23.567799 
38.000000 53.000000 36.536484 
35.000000 65.000000 25.905769 
73.000000 69.000000 25.610985 
64.000000 66.000000 34.664013 
20.000000 81.000000 25.105270 
21.000000 75.000000 14.846888 
15.000000 75.000000 15.861975 
26.000000 61.000000 23.411283 
11.000000 87.000000 14.604979 
25.000000 74.000000 19.429115 
35.000000 84.000000 25.385550 
39.000000 94.000000 22.889215 
28.000000 100.000000 25.970726 
36.000000 30.000000 19.256163 
71.000000 69.000000 26.955051 
12.000000 58.000000 15.148123 
16.000000 77.000000 19.612036 
32.000000 47.000000 28.706656 
27.000000 61.000000 23.451080 
15.000000 76.000000 17.959780 
47.000000 85.000000 21.301077 
12.000000 70.000000 10.584101 
11.000000 68.000000 10.133376 
27.000000 82.000000 22.681545 
49.000000 55.000000 27.385303 
49.000000 51.000000 26.959789 
32.000000 37.000000 29.167486 
65.000000 57.000000 25.980900 
24.000000 63.000000 27.098841 
31.000000 60.000000 25.522030 
59.000000 65.000000 29.451483 
16.000000 56.000000 21.166342 
28.000000 67.000000 28.900070 
49.000000 48.000000 24.418201 
18.000000 74.000000 13.626258 
10.000000 60.000000 8.630746 
18.000000 59.000000 23.030680 
10.000000 88.000000 14.673018 
50.000000 87.000000 22.094393 
1.000000 75.000000 7.019418 
19.000000 45.000000 24.943745 
36.000000 79.000000 32.808773 
21.000000 55.000000 24.232559 
38.000000 59.000000 31.910368 
34.000000 75.000000 29.696486 
30.000000 109.000000 24.385988 
41.000000 65.000000 25.658289 
23.000000 81.000000 21.773308 
72.000000 69.000000 26.343910 
31.000000 84.000000 29.350477 
41.000000 82.000000 31.480030 
31.000000 98.000000 27.403107 
7.000000 78.000000 10.945867 
25.000000 56.000000 25.491472 
36.000000 41.000000 30.135509 
70.000000 45.000000 19.867287 
36.000000 31.000000 20.394129 
58.000000 68.000000 27.246296 
52.000000 68.000000 26.313837 
57.000000 55.000000 23.472294 
38.000000 78.000000 30.489220 
12.000000 86.000000 14.688831 
35.000000 33.000000 23.575037 
70.000000 64.000000 27.310661 
15.000000 55.000000 20.910913 
75.000000 56.000000 26.473158 
49.000000 81.000000 22.391703 
19.000000 58.000000 21.743855 
29.000000 78.000000 23.654770 
18.000000 83.000000 24.556850 
17.000000 86.000000 19.386192 
29.000000 57.000000 26.638868 
69.000000 45.000000 20.366955 
61.000000 57.000000 28.100536 
59.000000 53.000000 22.194418 
42.000000 47.000000 29.424215 
38.000000 97.000000 20.380785 
0.000000 59.000000 7.051185 
6.000000 74.000000 7.125683 
48.000000 62.000000 30.368229 
28.000000 62.000000 23.752201 
35.000000 96.000000 23.617937 
55.000000 56.000000 23.769207 
7.000000 93.000000 13.954145 
50.000000 58.000000 25.948006 
14.000000 77.000000 20.283150 
56.000000 45.000000 16.713057 
40.000000 79.000000 30.082621 
40.000000 36.000000 23.023014 
34.000000 32.000000 23.087282 
15.000000 83.000000 20.459202 
69.000000 59.000000 25.300545 
73.000000 49.000000 23.626944 
39.000000 61.000000 29.798046 
52.000000 69.000000 25.748320 
64.000000 47.000000 20.466707 
38.000000 72.000000 24.221746 
28.000000 73.000000 23.143080 
74.000000 43.000000 18.578182 
25.000000 45.000000 21.360651 
1.000000 66.000000 7.019418 
33.000000 75.000000 30.837906 
24.000000 101.000000 27.541010 
41.000000 45.000000 28.261673 
17.000000 79.000000 22.466431 
19.000000 50.000000 26.395035 
65.000000 70.000000 31.324488 
47.000000 86.000000 20.581272 
34.000000 93.000000 27.097540 
75.000000 55.000000 26.844294 
9.000000 61.000000 7.146886 
27.000000 77.000000 22.308992 
41.000000 72.000000 23.292942 
17.000000 46.000000 23.812466 
43.000000 47.000000 28.322083 
27.000000 40.000000 20.874302 
25.000000 70.000000 23.162052 
71.000000 60.000000 24.262581 
18.000000 100.000000 22.356422 
44.000000 81.000000 28.784149 
38.000000 42.000000 30.905672 
38.000000 30.000000 20.362133 
41.000000 83.000000 29.343369 
75.000000 58.000000 25.617439 
19.000000 84.000000 24.506348 
14.000000 52.000000 21.288502 
64.000000 68.000000 31.311810 
34.000000 52.000000 35.632782 
4.000000 63.000000 7.021800 
24.000000 99.000000 27.815002 
19.000000 47.000000 26.394623 
28.000000 98.000000 26.768362 
23.000000 47.000000 25.832769 
31.000000 95.000000 29.051718 
4.000000 77.000000 7.019805 
2.000000 62.000000 7.048869 
60.000000 66.000000 29.848354 
50.000000 48.000000 24.700172 
3.000000 76.000000 7.019418 
43.000000 57.000000 34.438354 
20.000000 80.000000 23.804861 
0.000000 85.000000 7.023996 
23.000000 83.000000 25.407999 
32.000000 54.000000 32.901234 
63.000000 53.000000 23.602430 
16.000000 57.000000 22.654249 
72.000000 44.000000 18.569494 
20.000000 73.000000 14.826386 
29.000000 99.000000 26.458931 
57.000000 69.000000 26.499825 
66.000000 51.000000 22.578362 
54.000000 51.000000 22.095999 
0.000000 64.000000 7.019418 
24.000000 47.000000 24.579908 
7.000000 70.000000 7.881515 
24.000000 58.000000 24.356569 
13.000000 69.000000 11.935483 
4.000000 85.000000 8.202898 
35.000000 79.000000 31.964561 
10.000000 59.000000 9.484440 
72.000000 45.000000 19.976429 
48.000000 75.000000 23.686258 
36.000000 51.000000 35.858276 
18.000000 86.000000 20.475428 
40.000000 37.000000 24.091841 
38.000000 58.000000 31.898327 
23.000000 69.000000 25.410435 
7.000000 91.000000 13.698089 
8.000000 71.000000 8.609674 
20.000000 72.000000 16.195782 
45.000000 48.000000 26.427622 
51.000000 81.000000 21.354832 
21.000000 88.000000 24.097580 
58.000000 71.000000 25.849997 
65.000000 41.000000 19.889202 
11.000000 81.000000 16.775581 
23.000000 61.000000 24.316904 
53.000000 74.000000 23.832920 
27.000000 87.000000 31.330315 
72.000000 54.000000 26.026182 
34.000000 71.000000 25.601112 
21.000000 80.000000 22.398441 
17.000000 98.000000 21.417994 
20.000000 85.000000 25.289850 
34.000000 36.000000 28.273323 
44.000000 62.000000 31.604074 
59.000000 71.000000 26.888380 
8.000000 60.000000 7.091060 
31.000000 63.000000 25.184168 
32.000000 56.000000 31.316469 
4.000000 89.000000 10.944173 
38.000000 95.000000 23.076496 
23.000000 91.000000 27.822350 
14.000000 53.000000 20.144962 
34.000000 91.000000 28.728310 
44.000000 49.000000 28.462858 
37.000000 76.000000 28.972071 
47.000000 80.000000 23.764069 
24.000000 93.000000 28.856394 
57.000000 67.000000 27.459129 
42.000000 84.000000 26.462952 
35.000000 76.000000 29.546497 
20.000000 91.000000 23.669958 
34.000000 62.000000 25.693747 
7.000000 82.000000 9.716819 
37.000000 54.000000 33.930599 
16.000000 58.000000 23.672482 
4.000000 88.000000 10.164725 
20.000000 103.000000 24.105247 
48.000000 58.000000 29.475580 
35.000000 82.000000 26.682199 
35.000000 71.000000 24.886223 
48.000000 70.000000 28.469877 
39.000000 70.000000 24.004120 
71.000000 59.000000 23.667841 
45.000000 65.000000 28.767317 
5.000000 71.000000 7.117308 
70.000000 41.000000 19.388557 
37.000000 86.000000 24.530306 
36.000000 73.000000 26.069935 
43.000000 49.000000 29.700275 
21.000000 73.000000 16.468517 
73.000000 64.000000 25.025347 
56.000000 44.000000 16.458353 
52.000000 52.000000 24.291813 
5.000000 65.000000 7.043014 
27.000000 47.000000 24.162153 
54.000000 63.000000 27.980640 
30.000000 92.000000 28.583317 
20.000000 43.000000 22.184740 
20.000000 104.000000 24.233276 
24.000000 78.000000 17.076035 
6.000000 82.000000 8.826715 
26.000000 58.000000 24.617155 
23.000000 100.000000 26.396961 
43.000000 77.000000 24.590155 
40.000000 59.000000 32.497768 
53.000000 53.000000 23.946640 
9.000000 68.000000 8.500907 
50.000000 45.000000 20.294817 
31.000000 72.000000 29.189194 
21.000000 45.000000 24.714127 
34.000000 81.000000 27.924196 
58.000000 67.000000 27.725716 
7.000000 67.000000 7.323397 
15.000000 86.000000 17.189199 
8.000000 75.000000 10.549397 
61.000000 52.000000 23.149143 
66.000000 55.000000 23.947290 
21.000000 54.000000 24.473936 
27.000000 39.000000 20.947771 
42.000000 65.000000 25.919174 
34.000000 57.000000 28.874771 
24.000000 75.000000 17.654421 
2.000000 67.000000 7.019418 
31.000000 76.000000 27.918142 
14.000000 60.000000 18.294998 
34.000000 76.000000 29.605339 
74.000000 44.000000 19.483093 
55.000000 76.000000 22.604219 
41.000000 51.000000 33.519493 
33.000000 44.000000 28.751421 
40.000000 65.000000 25.484261 
72.000000 50.000000 24.523108 
63.000000 60.000000 30.220955 
43.000000 88.000000 22.764090 
71.000000 66.000000 26.770348 
34.000000 94.000000 25.003033 
17.000000 75.000000 15.387859 
33.000000 69.000000 24.921616 
35.000000 66.000000 25.331795 
29.000000 42.000000 22.072697 
48.000000 72.000000 26.672617 
62.000000 46.000000 20.879791 
13.000000 90.000000 17.664286 
20.000000 49.000000 26.994137 
7.000000 72.000000 7.746894 
26.000000 47.000000 23.917788 
72.000000 46.000000 21.113150 
0.000000 79.000000 7.019418 
10.000000 55.000000 14.156007 
74.000000 65.000000 24.729826 
37.000000 52.000000 34.619663 
42.000000 86.000000 24.102123 
51.000000 53.000000 25.318386 
