73.000000 65.000000 25.127651 
74.000000 65.000000 24.729826 
75.000000 65.000000 24.383497 
0.000000 66.000000 7.019418 
1.000000 66.000000 7.019418 
2.000000 66.000000 7.024137 
3.000000 66.000000 7.028856 
4.000000 66.000000 7.037184 
5.000000 66.000000 7.070938 
6.000000 66.000000 7.183206 
7.000000 66.000000 7.217191 
8.000000 66.000000 7.751400 
9.000000 66.000000 8.286021 
10.000000 66.000000 8.845862 
11.000000 66.000000 10.385279 
12.000000 66.000000 11.966667 
13.000000 66.000000 13.548055 
14.000000 66.000000 14.908117 
15.000000 66.000000 16.319643 
16.000000 66.000000 18.097675 
17.000000 66.000000 19.933958 
18.000000 66.000000 21.725735 
19.000000 66.000000 23.517511 
20.000000 66.000000 25.309286 
21.000000 66.000000 27.101063 
22.000000 66.000000 28.892839 
23.000000 66.000000 29.591026 
24.000000 66.000000 30.223827 
25.000000 66.000000 30.725849 
26.000000 66.000000 29.774065 
27.000000 66.000000 28.822281 
28.000000 66.000000 27.870497 
29.000000 66.000000 26.601215 
30.000000 66.000000 25.331936 
31.000000 66.000000 25.331907 
32.000000 66.000000 25.331879 
33.000000 66.000000 25.331852 
34.000000 66.000000 25.331823 
35.000000 66.000000 25.331795 
36.000000 66.000000 25.454201 
37.000000 66.000000 25.393801 
38.000000 66.000000 25.333401 
39.000000 66.000000 25.272999 
40.000000 66.000000 25.001110 
41.000000 66.000000 24.952179 
42.000000 66.000000 24.633635 
43.000000 66.000000 26.080305 
44.000000 66.000000 27.526976 
45.000000 66.000000 28.231823 
46.000000 66.000000 28.686081 
47.000000 66.000000 29.133699 
48.000000 66.000000 29.072245 
49.000000 66.000000 28.804487 
50.000000 66.000000 28.330425 
51.000000 66.000000 27.856363 
52.000000 66.000000 27.644293 
53.000000 66.000000 27.432220 
54.000000 66.000000 27.220150 
55.000000 66.000000 27.008080 
56.000000 66.000000 27.175781 
57.000000 66.000000 27.723259 
58.000000 66.000000 28.455307 
59.000000 66.000000 29.008518 
60.000000 66.000000 29.848354 
61.000000 66.000000 31.052269 
62.000000 66.000000 32.256184 
63.000000 66.000000 33.460098 
64.000000 66.000000 34.664013 
65.000000 66.000000 33.536346 
66.000000 66.000000 32.408680 
67.000000 66.000000 31.281013 
68.000000 66.000000 30.153347 
69.000000 66.000000 29.025681 
70.000000 66.000000 27.898014 
71.000000 66.000000 26.770348 
72.000000 66.000000 26.000153 
73.000000 66.000000 25.229958 
74.000000 66.000000 24.857880 
75.000000 66.000000 24.377533 
0.000000 67.000000 7.019418 
1.000000 67.000000 7.019418 
2.000000 67.000000 7.019418 
3.000000 67.000000 7.031353 
4.000000 67.000000 7.043288 
5.000000 67.000000 7.098861 
6.000000 67.000000 7.211129 
7.000000 67.000000 7.323397 
8.000000 67.000000 7.858431 
9.000000 67.000000 8.393464 
10.000000 67.000000 8.978111 
11.000000 67.000000 10.259327 
12.000000 67.000000 11.429143 
13.000000 67.000000 13.010530 
14.000000 67.000000 14.259931 
15.000000 67.000000 15.671456 
16.000000 67.000000 17.174608 
17.000000 67.000000 19.022017 
18.000000 67.000000 20.813793 
19.000000 67.000000 22.605570 
20.000000 67.000000 24.397345 
21.000000 67.000000 25.907082 
22.000000 67.000000 27.275799 
23.000000 67.000000 28.920626 
24.000000 67.000000 30.703506 
25.000000 67.000000 28.834900 
26.000000 67.000000 28.856623 
27.000000 67.000000 28.878347 
28.000000 67.000000 28.900070 
29.000000 67.000000 27.642340 
30.000000 67.000000 26.384607 
31.000000 67.000000 25.195162 
32.000000 67.000000 25.195135 
33.000000 67.000000 25.195107 
34.000000 67.000000 25.195078 
35.000000 67.000000 25.153496 
36.000000 67.000000 25.091137 
37.000000 67.000000 25.122139 
38.000000 67.000000 25.061739 
39.000000 67.000000 24.789848 
40.000000 67.000000 24.517960 
41.000000 67.000000 24.246071 
42.000000 67.000000 24.839962 
43.000000 67.000000 26.286633 
44.000000 67.000000 27.238756 
45.000000 67.000000 27.696331 
46.000000 67.000000 28.153906 
47.000000 67.000000 28.604843 
48.000000 67.000000 28.440237 
49.000000 67.000000 27.966175 
50.000000 67.000000 28.001028 
51.000000 67.000000 27.454956 
52.000000 67.000000 27.024813 
53.000000 67.000000 26.904238 
54.000000 67.000000 26.783661 
55.000000 67.000000 26.663086 
56.000000 67.000000 26.542511 
57.000000 67.000000 27.459129 
58.000000 67.000000 27.725716 
59.000000 67.000000 28.435051 
60.000000 67.000000 29.144386 
61.000000 67.000000 30.348301 
62.000000 67.000000 31.552216 
63.000000 67.000000 32.270065 
64.000000 67.000000 32.987911 
65.000000 67.000000 31.860245 
66.000000 67.000000 30.732578 
67.000000 67.000000 29.604912 
68.000000 67.000000 28.758030 
69.000000 67.000000 28.191931 
70.000000 67.000000 27.549894 
71.000000 67.000000 26.831915 
72.000000 67.000000 26.109825 
73.000000 67.000000 25.332262 
74.000000 67.000000 24.851915 
75.000000 67.000000 24.371569 
0.000000 68.000000 7.019418 
1.000000 68.000000 7.019418 
2.000000 68.000000 7.021416 
3.000000 68.000000 7.035405 
4.000000 68.000000 7.049393 
5.000000 68.000000 7.126785 
6.000000 68.000000 7.318110 
7.000000 68.000000 7.509437 
8.000000 68.000000 8.005172 
9.000000 68.000000 8.500907 
10.000000 68.000000 9.110361 
11.000000 68.000000 10.133376 
12.000000 68.000000 11.097405 
13.000000 68.000000 12.473007 
14.000000 68.000000 13.611744 
15.000000 68.000000 15.023270 
16.000000 68.000000 16.434795 
17.000000 68.000000 18.110075 
18.000000 68.000000 19.901852 
19.000000 68.000000 21.552608 
20.000000 68.000000 22.921324 
21.000000 68.000000 24.290041 
22.000000 68.000000 25.658758 
23.000000 68.000000 27.165529 
24.000000 68.000000 28.136600 
25.000000 68.000000 26.943951 
26.000000 68.000000 26.965673 
27.000000 68.000000 26.987398 
28.000000 68.000000 27.841204 
29.000000 68.000000 28.695011 
30.000000 68.000000 27.437281 
31.000000 68.000000 26.247835 
32.000000 68.000000 25.058390 
33.000000 68.000000 25.058361 
34.000000 68.000000 25.037556 
35.000000 68.000000 24.975197 
36.000000 68.000000 24.912836 
37.000000 68.000000 24.850477 
38.000000 68.000000 24.675983 
39.000000 68.000000 24.501490 
40.000000 68.000000 24.264950 
41.000000 68.000000 24.499092 
42.000000 68.000000 25.046291 
43.000000 68.000000 26.245687 
44.000000 68.000000 26.703262 
45.000000 68.000000 27.160837 
46.000000 68.000000 27.618412 
47.000000 68.000000 28.075987 
48.000000 68.000000 28.110840 
49.000000 68.000000 28.145693 
50.000000 68.000000 27.793264 
51.000000 68.000000 27.053551 
52.000000 68.000000 26.313837 
53.000000 68.000000 26.138853 
54.000000 68.000000 25.963869 
55.000000 68.000000 25.788887 
56.000000 68.000000 26.277075 
57.000000 68.000000 26.979477 
58.000000 68.000000 27.246296 
59.000000 68.000000 27.843357 
60.000000 68.000000 28.440420 
61.000000 68.000000 29.158268 
62.000000 68.000000 29.876114 
63.000000 68.000000 30.593962 
64.000000 68.000000 31.311810 
65.000000 68.000000 30.745712 
66.000000 68.000000 30.179613 
67.000000 68.000000 29.613516 
68.000000 68.000000 29.047417 
69.000000 68.000000 28.329439 
70.000000 68.000000 27.611462 
71.000000 68.000000 26.893484 
72.000000 68.000000 26.226868 
73.000000 68.000000 25.538321 
74.000000 68.000000 24.951962 
75.000000 68.000000 24.365604 
0.000000 69.000000 7.019418 
1.000000 69.000000 7.019418 
2.000000 69.000000 7.023415 
3.000000 69.000000 7.037403 
4.000000 69.000000 7.060978 
5.000000 69.000000 7.123626 
6.000000 69.000000 7.504150 
7.000000 69.000000 7.695476 
8.000000 69.000000 8.191211 
9.000000 69.000000 8.726038 
10.000000 69.000000 9.292662 
11.000000 69.000000 9.859286 
12.000000 69.000000 10.897385 
13.000000 69.000000 11.935483 
14.000000 69.000000 12.963557 
15.000000 69.000000 14.375083 
16.000000 69.000000 15.786608 
17.000000 69.000000 17.198133 
18.000000 69.000000 18.566851 
19.000000 69.000000 19.935568 
20.000000 69.000000 21.304283 
21.000000 69.000000 22.673000 
22.000000 69.000000 24.041718 
23.000000 69.000000 25.410435 
24.000000 69.000000 25.569696 
25.000000 69.000000 25.053001 
26.000000 69.000000 25.074724 
27.000000 69.000000 25.928532 
28.000000 69.000000 26.782339 
29.000000 69.000000 27.636145 
30.000000 69.000000 28.489952 
31.000000 69.000000 27.300507 
32.000000 69.000000 26.111061 
33.000000 69.000000 24.921616 
34.000000 69.000000 24.903849 
35.000000 69.000000 24.886082 
36.000000 69.000000 24.868315 
37.000000 69.000000 24.750401 
38.000000 69.000000 24.582413 
39.000000 69.000000 24.283827 
40.000000 69.000000 24.251606 
41.000000 69.000000 24.752111 
42.000000 69.000000 25.252619 
43.000000 69.000000 25.694988 
44.000000 69.000000 26.137356 
45.000000 69.000000 26.579725 
46.000000 69.000000 27.022093 
47.000000 69.000000 27.758104 
48.000000 69.000000 28.290359 
49.000000 69.000000 28.131571 
50.000000 69.000000 27.391857 
51.000000 69.000000 26.570087 
52.000000 69.000000 25.748320 
53.000000 69.000000 25.391790 
54.000000 69.000000 25.035261 
55.000000 69.000000 25.523449 
56.000000 69.000000 26.011637 
57.000000 69.000000 26.499825 
58.000000 69.000000 26.780863 
59.000000 69.000000 27.525032 
60.000000 69.000000 28.031713 
61.000000 69.000000 28.553598 
62.000000 69.000000 29.271446 
63.000000 69.000000 30.052315 
64.000000 69.000000 30.896204 
65.000000 69.000000 31.035099 
66.000000 69.000000 30.469002 
67.000000 69.000000 29.826963 
68.000000 69.000000 29.108986 
69.000000 69.000000 28.391008 
70.000000 69.000000 27.673029 
71.000000 69.000000 26.955051 
72.000000 69.000000 26.343910 
73.000000 69.000000 25.610985 
0.000000 70.000000 7.019418 
1.000000 70.000000 7.019418 
2.000000 70.000000 7.025413 
3.000000 70.000000 7.039402 
4.000000 70.000000 7.072562 
5.000000 70.000000 7.120467 
6.000000 70.000000 7.500991 
7.000000 70.000000 7.881515 
8.000000 70.000000 8.400443 
9.000000 70.000000 8.951168 
10.000000 70.000000 9.735344 
11.000000 70.000000 10.506130 
12.000000 70.000000 10.584101 
13.000000 70.000000 11.462307 
14.000000 70.000000 12.340513 
15.000000 70.000000 13.485379 
16.000000 70.000000 14.896905 
17.000000 70.000000 16.069166 
18.000000 70.000000 16.864016 
19.000000 70.000000 18.232733 
20.000000 70.000000 19.601450 
21.000000 70.000000 20.970167 
22.000000 70.000000 22.338884 
23.000000 70.000000 23.459465 
24.000000 70.000000 23.310759 
25.000000 70.000000 23.162052 
26.000000 70.000000 24.048981 
27.000000 70.000000 24.935911 
28.000000 70.000000 25.822840 
29.000000 70.000000 26.709770 
30.000000 70.000000 27.908724 
31.000000 70.000000 27.930069 
32.000000 70.000000 26.740623 
33.000000 70.000000 25.725412 
34.000000 70.000000 24.903919 
35.000000 70.000000 24.886152 
36.000000 70.000000 24.818312 
37.000000 70.000000 24.643608 
38.000000 70.000000 24.462191 
39.000000 70.000000 24.004120 
40.000000 70.000000 24.227348 
41.000000 70.000000 24.450575 
42.000000 70.000000 24.707203 
43.000000 70.000000 25.133043 
44.000000 70.000000 25.558886 
45.000000 70.000000 25.984726 
46.000000 70.000000 26.410568 
47.000000 70.000000 27.440224 
48.000000 70.000000 28.469877 
49.000000 70.000000 27.855755 
50.000000 70.000000 27.241634 
51.000000 70.000000 26.627512 
52.000000 70.000000 25.609293 
53.000000 70.000000 25.080017 
54.000000 70.000000 24.853687 
55.000000 70.000000 25.148157 
56.000000 70.000000 25.442629 
57.000000 70.000000 25.930817 
58.000000 70.000000 26.315430 
59.000000 70.000000 27.206707 
60.000000 70.000000 27.623007 
61.000000 70.000000 27.948929 
62.000000 70.000000 28.792818 
63.000000 70.000000 29.636707 
64.000000 70.000000 30.480598 
65.000000 70.000000 31.324488 
66.000000 70.000000 30.373362 
67.000000 70.000000 29.422234 
68.000000 70.000000 28.471107 
69.000000 70.000000 27.519981 
70.000000 70.000000 26.590103 
71.000000 70.000000 25.963739 
72.000000 70.000000 25.024824 
0.000000 71.000000 7.019418 
1.000000 71.000000 7.019418 
2.000000 71.000000 7.027411 
3.000000 71.000000 7.050986 
4.000000 71.000000 7.084147 
5.000000 71.000000 7.117308 
6.000000 71.000000 7.465756 
7.000000 71.000000 7.814204 
8.000000 71.000000 8.609674 
9.000000 71.000000 9.611401 
10.000000 71.000000 10.613127 
11.000000 71.000000 11.152975 
12.000000 71.000000 11.486647 
13.000000 71.000000 11.324591 
14.000000 71.000000 11.717470 
15.000000 71.000000 12.595676 
16.000000 71.000000 14.007202 
17.000000 71.000000 14.940199 
18.000000 71.000000 15.394669 
19.000000 71.000000 16.529900 
20.000000 71.000000 17.898617 
21.000000 71.000000 19.267332 
22.000000 71.000000 20.387915 
23.000000 71.000000 21.508497 
24.000000 71.000000 21.359791 
25.000000 71.000000 22.228817 
26.000000 71.000000 23.155727 
27.000000 71.000000 24.042658 
28.000000 71.000000 24.929586 
29.000000 71.000000 25.816517 
30.000000 71.000000 27.327496 
31.000000 71.000000 28.559631 
32.000000 71.000000 27.457302 
33.000000 71.000000 26.529207 
34.000000 71.000000 25.601112 
35.000000 71.000000 24.886223 
36.000000 71.000000 24.704805 
37.000000 71.000000 24.523386 
38.000000 71.000000 24.341969 
39.000000 71.000000 23.838154 
40.000000 71.000000 23.648531 
41.000000 71.000000 23.871758 
42.000000 71.000000 24.161785 
43.000000 71.000000 24.587627 
44.000000 71.000000 25.013468 
45.000000 71.000000 25.379971 
46.000000 71.000000 25.627796 
47.000000 71.000000 26.541592 
48.000000 71.000000 27.571247 
49.000000 71.000000 28.120827 
50.000000 71.000000 27.506704 
51.000000 71.000000 26.690535 
52.000000 71.000000 25.470266 
53.000000 71.000000 24.768242 
54.000000 71.000000 24.672113 
55.000000 71.000000 24.966583 
56.000000 71.000000 25.261055 
57.000000 71.000000 25.555525 
58.000000 71.000000 25.849997 
59.000000 71.000000 26.888380 
60.000000 71.000000 27.576702 
61.000000 71.000000 28.265024 
62.000000 71.000000 28.953346 
63.000000 71.000000 29.641668 
64.000000 71.000000 30.419800 
65.000000 71.000000 29.987164 
66.000000 71.000000 29.036037 
67.000000 71.000000 28.084911 
68.000000 71.000000 27.133783 
69.000000 71.000000 26.225155 
70.000000 71.000000 25.583569 
71.000000 71.000000 24.438662 
0.000000 72.000000 7.019418 
1.000000 72.000000 7.019418 
2.000000 72.000000 7.029409 
3.000000 72.000000 7.062571 
4.000000 72.000000 7.084678 
5.000000 72.000000 7.084688 
6.000000 72.000000 7.370817 
7.000000 72.000000 7.746894 
8.000000 72.000000 9.118039 
9.000000 72.000000 10.489183 
10.000000 72.000000 11.490910 
11.000000 72.000000 11.927670 
12.000000 72.000000 12.389194 
13.000000 72.000000 12.642857 
14.000000 72.000000 12.065081 
15.000000 72.000000 11.972632 
16.000000 72.000000 13.117498 
17.000000 72.000000 13.811233 
18.000000 72.000000 14.265701 
19.000000 72.000000 14.720171 
20.000000 72.000000 16.195782 
21.000000 72.000000 17.316364 
22.000000 72.000000 18.436945 
23.000000 72.000000 19.557528 
24.000000 72.000000 20.426556 
25.000000 72.000000 21.295584 
26.000000 72.000000 22.222494 
27.000000 72.000000 23.149405 
28.000000 72.000000 24.036333 
29.000000 72.000000 25.235287 
30.000000 72.000000 26.746265 
31.000000 72.000000 29.189194 
32.000000 72.000000 28.569414 
33.000000 72.000000 27.949635 
34.000000 72.000000 27.282299 
35.000000 72.000000 26.079485 
36.000000 72.000000 25.226812 
37.000000 72.000000 24.724279 
38.000000 72.000000 24.221746 
39.000000 72.000000 23.672186 
40.000000 72.000000 23.482563 
41.000000 72.000000 23.292942 
42.000000 72.000000 23.616367 
43.000000 72.000000 24.042210 
44.000000 72.000000 24.349375 
45.000000 72.000000 24.597200 
46.000000 72.000000 24.845026 
47.000000 72.000000 25.758821 
48.000000 72.000000 26.672617 
49.000000 72.000000 27.222197 
50.000000 72.000000 27.771776 
51.000000 72.000000 26.551508 
52.000000 72.000000 25.331240 
53.000000 72.000000 24.456469 
54.000000 72.000000 24.490540 
55.000000 72.000000 24.785009 
56.000000 72.000000 25.079481 
57.000000 72.000000 25.005835 
58.000000 72.000000 25.823872 
59.000000 72.000000 26.582205 
60.000000 72.000000 27.270529 
61.000000 72.000000 27.958851 
62.000000 72.000000 28.692076 
63.000000 72.000000 29.515112 
64.000000 72.000000 29.600967 
65.000000 72.000000 28.649841 
66.000000 72.000000 27.698713 
67.000000 72.000000 26.747587 
68.000000 72.000000 25.860209 
69.000000 72.000000 25.203398 
70.000000 72.000000 23.852501 
0.000000 73.000000 7.019418 
1.000000 73.000000 7.019418 
2.000000 73.000000 7.040994 
3.000000 73.000000 7.052048 
4.000000 73.000000 7.052052 
5.000000 73.000000 7.052067 
6.000000 73.000000 7.248250 
7.000000 73.000000 8.183152 
8.000000 73.000000 9.602970 
9.000000 73.000000 10.985831 
10.000000 73.000000 12.368693 
11.000000 73.000000 12.830216 
12.000000 73.000000 13.291739 
13.000000 73.000000 13.753263 
14.000000 73.000000 13.383347 
15.000000 73.000000 12.805572 
16.000000 73.000000 12.227796 
17.000000 73.000000 13.005963 
18.000000 73.000000 13.784131 
19.000000 73.000000 14.243870 
20.000000 73.000000 14.826386 
21.000000 73.000000 16.468517 
22.000000 73.000000 17.424124 
23.000000 73.000000 18.379730 
24.000000 73.000000 19.493320 
25.000000 73.000000 20.362350 
26.000000 73.000000 21.289259 
27.000000 73.000000 22.216169 
28.000000 73.000000 23.143080 
29.000000 73.000000 24.654058 
30.000000 73.000000 26.165037 
31.000000 73.000000 27.336149 
32.000000 73.000000 28.507263 
33.000000 73.000000 29.678375 
34.000000 73.000000 28.475561 
35.000000 73.000000 27.272749 
36.000000 73.000000 26.069935 
37.000000 73.000000 25.692446 
38.000000 73.000000 25.271938 
39.000000 73.000000 24.597879 
40.000000 73.000000 23.999802 
41.000000 73.000000 23.535378 
42.000000 73.000000 23.070951 
43.000000 73.000000 23.318777 
44.000000 73.000000 23.566603 
45.000000 73.000000 23.814428 
46.000000 73.000000 24.062256 
47.000000 73.000000 24.976051 
48.000000 73.000000 25.677164 
49.000000 73.000000 26.226744 
50.000000 73.000000 26.686760 
51.000000 73.000000 26.240702 
52.000000 73.000000 25.192215 
53.000000 73.000000 24.144693 
54.000000 73.000000 24.308966 
55.000000 73.000000 24.419376 
56.000000 73.000000 24.161673 
57.000000 73.000000 24.759363 
58.000000 73.000000 25.587709 
59.000000 73.000000 26.276031 
60.000000 73.000000 26.964354 
61.000000 73.000000 27.787388 
62.000000 73.000000 28.610422 
63.000000 73.000000 29.214771 
64.000000 73.000000 28.263643 
65.000000 73.000000 27.312517 
66.000000 73.000000 26.361391 
67.000000 73.000000 25.495260 
68.000000 73.000000 24.823227 
69.000000 73.000000 23.789053 
0.000000 74.000000 7.019418 
1.000000 74.000000 7.019418 
2.000000 74.000000 7.019418 
3.000000 74.000000 7.019418 
4.000000 74.000000 7.019432 
5.000000 74.000000 7.019447 
6.000000 74.000000 7.125683 
7.000000 74.000000 8.619411 
8.000000 74.000000 10.076183 
9.000000 74.000000 11.459045 
10.000000 74.000000 13.265377 
11.000000 74.000000 14.177124 
12.000000 74.000000 14.194286 
13.000000 74.000000 14.655809 
14.000000 74.000000 14.701612 
15.000000 74.000000 14.123837 
16.000000 74.000000 13.926356 
17.000000 74.000000 13.747304 
18.000000 74.000000 13.626258 
19.000000 74.000000 13.767568 
20.000000 74.000000 14.480281 
21.000000 74.000000 15.657702 
22.000000 74.000000 16.490982 
23.000000 74.000000 17.324261 
24.000000 74.000000 18.157541 
25.000000 74.000000 19.429115 
26.000000 74.000000 20.810495 
27.000000 74.000000 22.191877 
28.000000 74.000000 23.573257 
29.000000 74.000000 25.084236 
30.000000 74.000000 26.362236 
31.000000 74.000000 27.750586 
32.000000 74.000000 29.087029 
33.000000 74.000000 30.258141 
34.000000 74.000000 29.086023 
35.000000 74.000000 27.883209 
36.000000 74.000000 27.133051 
37.000000 74.000000 26.785654 
38.000000 74.000000 26.322128 
39.000000 74.000000 25.523573 
40.000000 74.000000 24.791843 
41.000000 74.000000 24.327419 
42.000000 74.000000 23.714926 
43.000000 74.000000 23.416498 
44.000000 74.000000 23.370827 
45.000000 74.000000 23.325155 
46.000000 74.000000 23.279484 
47.000000 74.000000 23.980598 
48.000000 74.000000 24.681711 
49.000000 74.000000 25.186508 
50.000000 74.000000 25.601744 
51.000000 74.000000 25.586330 
52.000000 74.000000 24.709625 
53.000000 74.000000 23.832920 
54.000000 74.000000 23.575214 
55.000000 74.000000 23.317511 
56.000000 74.000000 23.805027 
57.000000 74.000000 24.593212 
58.000000 74.000000 25.281534 
59.000000 74.000000 26.059666 
60.000000 74.000000 26.882700 
61.000000 74.000000 27.705734 
62.000000 74.000000 28.693794 
63.000000 74.000000 27.877447 
64.000000 74.000000 26.926321 
65.000000 74.000000 25.975193 
66.000000 74.000000 25.130312 
67.000000 74.000000 24.443056 
68.000000 74.000000 23.899843 
0.000000 75.000000 7.019418 
1.000000 75.000000 7.019418 
2.000000 75.000000 7.019418 
3.000000 75.000000 7.019418 
4.000000 75.000000 7.019432 
5.000000 75.000000 7.054978 
6.000000 75.000000 7.810637 
7.000000 75.000000 9.138730 
8.000000 75.000000 10.549397 
9.000000 75.000000 12.355729 
10.000000 75.000000 14.162060 
11.000000 75.000000 15.968391 
12.000000 75.000000 15.985554 
13.000000 75.000000 16.002716 
14.000000 75.000000 16.019878 
15.000000 75.000000 15.861975 
16.000000 75.000000 15.624917 
17.000000 75.000000 15.387859 
18.000000 75.000000 15.046984 
19.000000 75.000000 14.706108 
20.000000 75.000000 14.776498 
21.000000 75.000000 14.846888 
22.000000 75.000000 15.782732 
23.000000 75.000000 16.718576 
24.000000 75.000000 17.654421 
25.000000 75.000000 19.167751 
26.000000 75.000000 20.963148 
27.000000 75.000000 22.622055 
28.000000 75.000000 24.003435 
29.000000 75.000000 25.397924 
30.000000 75.000000 26.559435 
31.000000 75.000000 27.834364 
32.000000 75.000000 29.336136 
33.000000 75.000000 30.837906 
34.000000 75.000000 29.696486 
35.000000 75.000000 28.714853 
36.000000 75.000000 28.196167 
37.000000 75.000000 27.878862 
38.000000 75.000000 27.247822 
39.000000 75.000000 26.449266 
40.000000 75.000000 25.650713 
41.000000 75.000000 25.119461 
42.000000 75.000000 24.358900 
43.000000 75.000000 23.807716 
44.000000 75.000000 23.762045 
45.000000 75.000000 23.716373 
46.000000 75.000000 23.236467 
47.000000 75.000000 23.108961 
48.000000 75.000000 23.686258 
49.000000 75.000000 24.101492 
50.000000 75.000000 24.516727 
51.000000 75.000000 24.931961 
52.000000 75.000000 24.314604 
53.000000 75.000000 23.393976 
54.000000 75.000000 22.473349 
55.000000 75.000000 22.960865 
56.000000 75.000000 23.598717 
57.000000 75.000000 24.331942 
58.000000 75.000000 25.154978 
59.000000 75.000000 25.978012 
60.000000 75.000000 26.801046 
61.000000 75.000000 27.768476 
62.000000 75.000000 27.491249 
63.000000 75.000000 26.540123 
64.000000 75.000000 25.588997 
65.000000 75.000000 24.765366 
66.000000 75.000000 23.925558 
67.000000 75.000000 24.010633 
0.000000 76.000000 7.019418 
1.000000 76.000000 7.019418 
2.000000 76.000000 7.019418 
3.000000 76.000000 7.019418 
4.000000 76.000000 7.019619 
5.000000 76.000000 7.415221 
6.000000 76.000000 8.495590 
7.000000 76.000000 9.741109 
8.000000 76.000000 11.283665 
9.000000 76.000000 13.089995 
10.000000 76.000000 14.819540 
11.000000 76.000000 16.395510 
12.000000 76.000000 17.831411 
13.000000 76.000000 18.134352 
14.000000 76.000000 18.151514 
15.000000 76.000000 17.959780 
16.000000 76.000000 17.653225 
17.000000 76.000000 17.169220 
18.000000 76.000000 16.828342 
19.000000 76.000000 16.565016 
20.000000 76.000000 16.247704 
21.000000 76.000000 16.115246 
22.000000 76.000000 15.658558 
23.000000 76.000000 16.594402 
24.000000 76.000000 17.461626 
25.000000 76.000000 18.906385 
26.000000 76.000000 20.560749 
27.000000 76.000000 22.497181 
28.000000 76.000000 24.433613 
29.000000 76.000000 25.595123 
30.000000 76.000000 26.756632 
31.000000 76.000000 27.918142 
32.000000 76.000000 29.315338 
33.000000 76.000000 29.877737 
34.000000 76.000000 29.605339 
35.000000 76.000000 29.546497 
36.000000 76.000000 29.259285 
37.000000 76.000000 28.972071 
38.000000 76.000000 28.173515 
39.000000 76.000000 27.374960 
40.000000 76.000000 26.576406 
41.000000 76.000000 25.911503 
42.000000 76.000000 25.002874 
43.000000 76.000000 24.198936 
44.000000 76.000000 24.153265 
45.000000 76.000000 23.673357 
46.000000 76.000000 23.193451 
47.000000 76.000000 22.713543 
48.000000 76.000000 22.938438 
49.000000 76.000000 23.353674 
50.000000 76.000000 23.819452 
51.000000 76.000000 24.335773 
52.000000 76.000000 23.757252 
53.000000 76.000000 23.372908 
54.000000 76.000000 22.988564 
55.000000 76.000000 22.604219 
56.000000 76.000000 23.427254 
57.000000 76.000000 24.250288 
58.000000 76.000000 25.073324 
59.000000 76.000000 25.896358 
60.000000 76.000000 26.843161 
61.000000 76.000000 27.105053 
62.000000 76.000000 26.153927 
63.000000 76.000000 25.202801 
64.000000 76.000000 24.400417 
65.000000 76.000000 23.339397 
66.000000 76.000000 24.121424 
0.000000 77.000000 7.019418 
1.000000 77.000000 7.019418 
2.000000 77.000000 7.019418 
3.000000 77.000000 7.019611 
4.000000 77.000000 7.019805 
5.000000 77.000000 8.100174 
6.000000 77.000000 9.180544 
7.000000 77.000000 10.343488 
8.000000 77.000000 12.017931 
9.000000 77.000000 13.670688 
10.000000 77.000000 15.246657 
11.000000 77.000000 16.822626 
12.000000 77.000000 18.641619 
13.000000 77.000000 19.694433 
14.000000 77.000000 20.283150 
15.000000 77.000000 19.947594 
16.000000 77.000000 19.612036 
17.000000 77.000000 18.950579 
18.000000 77.000000 18.687252 
19.000000 77.000000 18.423923 
20.000000 77.000000 18.124607 
21.000000 77.000000 17.789301 
22.000000 77.000000 17.453995 
23.000000 77.000000 16.470228 
24.000000 77.000000 17.268829 
25.000000 77.000000 18.713591 
26.000000 77.000000 20.158350 
27.000000 77.000000 22.308992 
28.000000 77.000000 23.465792 
29.000000 77.000000 24.510044 
30.000000 77.000000 25.671555 
31.000000 77.000000 27.231529 
32.000000 77.000000 29.189968 
33.000000 77.000000 29.705015 
34.000000 77.000000 30.220064 
35.000000 77.000000 30.352518 
36.000000 77.000000 30.442448 
37.000000 77.000000 30.042841 
38.000000 77.000000 29.298203 
39.000000 77.000000 28.433317 
40.000000 77.000000 27.568430 
41.000000 77.000000 26.703545 
42.000000 77.000000 25.646851 
43.000000 77.000000 24.590155 
44.000000 77.000000 24.110249 
45.000000 77.000000 23.630341 
46.000000 77.000000 23.150434 
47.000000 77.000000 22.670527 
48.000000 77.000000 22.190620 
49.000000 77.000000 22.706942 
50.000000 77.000000 23.223263 
51.000000 77.000000 23.739584 
52.000000 77.000000 23.199898 
53.000000 77.000000 22.815554 
54.000000 77.000000 22.431211 
55.000000 77.000000 22.522566 
56.000000 77.000000 23.345600 
57.000000 77.000000 24.168634 
58.000000 77.000000 24.991671 
59.000000 77.000000 25.917845 
60.000000 77.000000 26.718857 
61.000000 77.000000 25.767729 
62.000000 77.000000 24.816603 
63.000000 77.000000 24.035469 
64.000000 77.000000 23.101711 
65.000000 77.000000 24.232212 
0.000000 78.000000 7.019418 
1.000000 78.000000 7.019418 
2.000000 78.000000 7.019611 
3.000000 78.000000 7.085692 
4.000000 78.000000 7.151773 
5.000000 78.000000 8.203805 
6.000000 78.000000 9.574836 
7.000000 78.000000 10.945867 
8.000000 78.000000 12.521836 
9.000000 78.000000 14.097805 
10.000000 78.000000 15.673775 
11.000000 78.000000 17.249744 
12.000000 78.000000 18.987728 
13.000000 78.000000 20.968737 
14.000000 78.000000 21.131159 
15.000000 78.000000 21.293579 
16.000000 78.000000 21.207012 
17.000000 78.000000 20.708504 
18.000000 78.000000 20.512499 
19.000000 78.000000 20.282831 
20.000000 78.000000 20.001511 
21.000000 78.000000 19.666203 
22.000000 78.000000 18.812700 
23.000000 78.000000 17.944366 
24.000000 78.000000 17.076035 
25.000000 78.000000 19.398512 
26.000000 78.000000 20.633492 
27.000000 78.000000 22.383503 
28.000000 78.000000 23.019136 
29.000000 78.000000 23.654770 
30.000000 78.000000 24.586475 
31.000000 78.000000 26.301296 
32.000000 78.000000 28.016115 
33.000000 78.000000 29.725395 
34.000000 78.000000 30.834789 
35.000000 78.000000 31.158541 
36.000000 78.000000 31.625610 
37.000000 78.000000 31.113611 
38.000000 78.000000 30.489220 
39.000000 78.000000 29.650764 
40.000000 78.000000 28.812309 
41.000000 78.000000 27.864735 
42.000000 78.000000 26.906109 
43.000000 78.000000 25.917713 
44.000000 78.000000 24.722134 
45.000000 78.000000 23.994854 
46.000000 78.000000 23.514948 
47.000000 78.000000 23.035042 
48.000000 78.000000 22.444124 
49.000000 78.000000 22.110754 
50.000000 78.000000 22.627075 
51.000000 78.000000 23.143396 
52.000000 78.000000 22.642546 
53.000000 78.000000 22.258202 
54.000000 78.000000 22.145842 
55.000000 78.000000 22.440912 
56.000000 78.000000 23.263947 
57.000000 78.000000 24.086983 
58.000000 78.000000 24.992529 
59.000000 78.000000 26.063099 
60.000000 78.000000 25.381533 
61.000000 78.000000 24.430407 
62.000000 78.000000 23.655298 
63.000000 78.000000 23.212502 
64.000000 78.000000 24.343002 
0.000000 79.000000 7.019418 
1.000000 79.000000 7.085498 
2.000000 79.000000 7.151579 
3.000000 79.000000 7.217660 
4.000000 79.000000 7.283741 
5.000000 79.000000 8.016775 
6.000000 79.000000 9.387806 
7.000000 79.000000 10.715670 
8.000000 79.000000 12.297778 
9.000000 79.000000 14.274135 
10.000000 79.000000 16.100893 
11.000000 79.000000 17.676863 
12.000000 79.000000 19.333839 
13.000000 79.000000 20.562353 
14.000000 79.000000 21.038372 
15.000000 79.000000 21.514391 
16.000000 79.000000 21.990412 
17.000000 79.000000 22.466431 
18.000000 79.000000 22.270424 
19.000000 79.000000 22.074419 
20.000000 79.000000 21.878412 
21.000000 79.000000 21.032322 
22.000000 79.000000 20.171404 
23.000000 79.000000 19.267761 
24.000000 79.000000 18.638674 
25.000000 79.000000 20.961151 
26.000000 79.000000 21.108635 
27.000000 79.000000 22.458014 
28.000000 79.000000 23.093647 
29.000000 79.000000 24.112995 
30.000000 79.000000 25.172106 
31.000000 79.000000 25.608028 
32.000000 79.000000 26.842262 
33.000000 79.000000 28.557083 
34.000000 79.000000 30.260822 
35.000000 79.000000 31.964561 
36.000000 79.000000 32.808773 
37.000000 79.000000 32.127235 
38.000000 79.000000 31.445698 
39.000000 79.000000 30.764158 
40.000000 79.000000 30.082621 
41.000000 79.000000 29.222065 
42.000000 79.000000 28.361507 
43.000000 79.000000 27.245270 
44.000000 79.000000 26.076139 
45.000000 79.000000 24.854115 
46.000000 79.000000 23.879461 
47.000000 79.000000 23.399555 
48.000000 79.000000 22.697630 
49.000000 79.000000 22.031944 
50.000000 79.000000 22.030888 
51.000000 79.000000 22.547209 
52.000000 79.000000 22.085194 
53.000000 79.000000 21.882172 
54.000000 79.000000 21.951136 
55.000000 79.000000 22.359259 
56.000000 79.000000 23.182293 
57.000000 79.000000 24.067213 
58.000000 79.000000 25.137783 
59.000000 79.000000 24.995337 
60.000000 79.000000 24.044209 
61.000000 79.000000 23.275127 
62.000000 79.000000 23.323292 
0.000000 80.000000 7.019418 
1.000000 80.000000 7.217466 
2.000000 80.000000 7.283547 
3.000000 80.000000 7.349628 
4.000000 80.000000 7.415709 
5.000000 80.000000 7.989244 
6.000000 80.000000 9.200776 
7.000000 80.000000 10.485473 
8.000000 80.000000 11.875709 
9.000000 80.000000 13.649690 
10.000000 80.000000 15.524858 
11.000000 80.000000 17.602404 
12.000000 80.000000 19.679949 
13.000000 80.000000 20.187654 
14.000000 80.000000 20.695360 
15.000000 80.000000 21.203066 
16.000000 80.000000 21.710772 
17.000000 80.000000 22.647564 
18.000000 80.000000 23.467125 
19.000000 80.000000 23.792187 
20.000000 80.000000 23.804861 
21.000000 80.000000 22.398441 
22.000000 80.000000 21.459488 
23.000000 80.000000 20.520535 
24.000000 80.000000 20.201313 
25.000000 80.000000 21.436293 
26.000000 80.000000 21.583776 
27.000000 80.000000 22.532524 
28.000000 80.000000 23.168158 
29.000000 80.000000 24.571220 
30.000000 80.000000 25.757736 
31.000000 80.000000 26.356518 
32.000000 80.000000 26.629581 
33.000000 80.000000 27.383230 
34.000000 80.000000 29.092508 
35.000000 80.000000 30.427685 
36.000000 80.000000 30.967081 
37.000000 80.000000 31.568575 
38.000000 80.000000 32.170071 
39.000000 80.000000 32.130047 
40.000000 80.000000 31.448511 
41.000000 80.000000 30.677464 
42.000000 80.000000 29.689066 
43.000000 80.000000 28.572828 
44.000000 80.000000 27.430143 
45.000000 80.000000 26.208118 
46.000000 80.000000 24.986094 
47.000000 80.000000 23.764069 
48.000000 80.000000 22.951134 
49.000000 80.000000 22.211823 
50.000000 80.000000 21.693388 
51.000000 80.000000 21.951019 
52.000000 80.000000 21.618502 
53.000000 80.000000 21.687466 
54.000000 80.000000 21.731178 
55.000000 80.000000 22.277605 
56.000000 80.000000 23.141895 
57.000000 80.000000 24.212467 
58.000000 80.000000 24.609138 
59.000000 80.000000 23.658012 
60.000000 80.000000 22.826294 
61.000000 80.000000 23.434082 
0.000000 81.000000 7.019418 
1.000000 81.000000 7.217466 
2.000000 81.000000 7.415515 
3.000000 81.000000 7.481596 
4.000000 81.000000 7.547677 
5.000000 81.000000 8.121212 
6.000000 81.000000 9.013745 
7.000000 81.000000 10.255276 
8.000000 81.000000 11.453639 
9.000000 81.000000 13.227620 
10.000000 81.000000 15.001600 
11.000000 81.000000 16.775581 
12.000000 81.000000 18.331663 
13.000000 81.000000 19.939699 
14.000000 81.000000 20.447405 
15.000000 81.000000 20.955111 
16.000000 81.000000 21.462816 
17.000000 81.000000 22.828699 
18.000000 81.000000 23.830366 
19.000000 81.000000 24.467819 
20.000000 81.000000 25.105270 
21.000000 81.000000 23.712128 
22.000000 81.000000 22.742718 
23.000000 81.000000 21.773308 
24.000000 81.000000 21.763952 
25.000000 81.000000 21.911436 
26.000000 81.000000 22.058920 
27.000000 81.000000 22.607035 
28.000000 81.000000 23.783503 
29.000000 81.000000 25.093149 
30.000000 81.000000 26.343367 
31.000000 81.000000 27.105007 
32.000000 81.000000 27.378071 
33.000000 81.000000 27.651133 
34.000000 81.000000 27.924196 
35.000000 81.000000 28.554943 
36.000000 81.000000 29.125387 
37.000000 81.000000 29.726883 
38.000000 81.000000 30.328377 
39.000000 81.000000 30.929873 
40.000000 81.000000 31.531366 
41.000000 81.000000 32.132862 
42.000000 81.000000 31.016624 
43.000000 81.000000 29.900387 
44.000000 81.000000 28.784149 
45.000000 81.000000 27.010761 
46.000000 81.000000 25.237373 
47.000000 81.000000 23.463985 
48.000000 81.000000 22.751095 
49.000000 81.000000 22.391703 
50.000000 81.000000 21.873268 
51.000000 81.000000 21.354832 
52.000000 81.000000 21.423796 
53.000000 81.000000 21.492758 
54.000000 81.000000 21.511221 
55.000000 81.000000 22.216579 
56.000000 81.000000 23.287151 
57.000000 81.000000 24.222942 
58.000000 81.000000 23.271816 
59.000000 81.000000 22.414370 
60.000000 81.000000 23.544870 
0.000000 82.000000 7.019418 
1.000000 82.000000 7.217466 
2.000000 82.000000 7.415515 
3.000000 82.000000 7.613564 
4.000000 82.000000 7.679644 
5.000000 82.000000 8.253180 
6.000000 82.000000 8.826715 
7.000000 82.000000 9.716819 
8.000000 82.000000 10.962156 
9.000000 82.000000 12.172759 
10.000000 82.000000 13.348625 
11.000000 82.000000 15.253098 
12.000000 82.000000 16.983376 
13.000000 82.000000 18.591413 
14.000000 82.000000 20.199451 
15.000000 82.000000 20.707157 
16.000000 82.000000 21.643951 
17.000000 82.000000 23.009834 
18.000000 82.000000 24.193609 
19.000000 82.000000 24.831060 
20.000000 82.000000 24.935677 
21.000000 82.000000 25.025816 
22.000000 82.000000 24.308235 
23.000000 82.000000 23.590652 
24.000000 82.000000 23.242249 
25.000000 82.000000 22.855127 
26.000000 82.000000 22.768335 
27.000000 82.000000 22.681545 
28.000000 82.000000 24.398848 
29.000000 82.000000 25.678780 
30.000000 82.000000 26.928997 
31.000000 82.000000 27.853498 
32.000000 82.000000 28.126560 
33.000000 82.000000 28.399624 
34.000000 82.000000 27.540911 
35.000000 82.000000 26.682199 
36.000000 82.000000 27.481838 
37.000000 82.000000 28.281477 
38.000000 82.000000 29.081116 
39.000000 82.000000 29.880753 
40.000000 82.000000 30.680391 
41.000000 82.000000 31.480030 
42.000000 82.000000 29.993053 
43.000000 82.000000 28.506075 
44.000000 82.000000 27.593769 
45.000000 82.000000 26.584244 
46.000000 82.000000 24.937290 
47.000000 82.000000 23.163902 
48.000000 82.000000 22.097513 
49.000000 82.000000 22.065922 
50.000000 82.000000 22.118708 
51.000000 82.000000 21.747202 
52.000000 82.000000 21.522627 
53.000000 82.000000 21.298052 
54.000000 82.000000 21.291264 
55.000000 82.000000 22.361835 
56.000000 82.000000 23.432405 
57.000000 82.000000 22.885618 
58.000000 82.000000 22.525160 
59.000000 82.000000 23.655661 
0.000000 83.000000 7.019418 
1.000000 83.000000 7.217466 
2.000000 83.000000 7.415515 
3.000000 83.000000 7.613564 
4.000000 83.000000 7.811612 
5.000000 83.000000 8.416986 
6.000000 83.000000 9.212178 
7.000000 83.000000 10.046790 
8.000000 83.000000 10.881401 
9.000000 83.000000 11.716012 
10.000000 83.000000 13.200792 
11.000000 83.000000 14.417941 
12.000000 83.000000 15.635090 
13.000000 83.000000 17.243128 
14.000000 83.000000 18.851164 
15.000000 83.000000 20.459202 
16.000000 83.000000 21.825085 
17.000000 83.000000 23.190968 
18.000000 83.000000 24.556850 
19.000000 83.000000 24.668705 
20.000000 83.000000 24.766083 
21.000000 83.000000 25.155851 
22.000000 83.000000 25.281925 
23.000000 83.000000 25.407999 
24.000000 83.000000 24.720547 
25.000000 83.000000 24.033092 
26.000000 83.000000 23.988813 
27.000000 83.000000 23.944534 
28.000000 83.000000 25.014193 
29.000000 83.000000 26.264410 
30.000000 83.000000 27.514629 
31.000000 83.000000 28.601988 
32.000000 83.000000 28.875050 
33.000000 83.000000 28.016338 
34.000000 83.000000 27.025106 
35.000000 83.000000 26.033875 
36.000000 83.000000 26.166830 
37.000000 83.000000 26.299786 
38.000000 83.000000 26.766083 
39.000000 83.000000 27.565722 
40.000000 83.000000 28.365360 
41.000000 83.000000 29.343369 
42.000000 83.000000 28.228003 
43.000000 83.000000 27.028360 
44.000000 83.000000 26.403389 
45.000000 83.000000 25.778418 
46.000000 83.000000 24.384336 
47.000000 83.000000 22.863821 
48.000000 83.000000 21.443932 
49.000000 83.000000 21.740139 
50.000000 83.000000 22.364147 
51.000000 83.000000 21.701487 
52.000000 83.000000 21.038826 
53.000000 83.000000 21.340488 
54.000000 83.000000 21.436518 
55.000000 83.000000 22.507090 
56.000000 83.000000 22.499422 
57.000000 83.000000 22.635950 
58.000000 83.000000 23.766451 
0.000000 84.000000 7.019418 
1.000000 84.000000 7.266377 
2.000000 84.000000 7.513336 
3.000000 84.000000 7.760296 
4.000000 84.000000 8.007256 
5.000000 84.000000 8.707539 
6.000000 84.000000 9.542150 
7.000000 84.000000 10.351307 
8.000000 84.000000 11.135012 
9.000000 84.000000 11.918716 
10.000000 84.000000 13.052959 
11.000000 84.000000 14.270108 
12.000000 84.000000 15.319671 
13.000000 84.000000 16.927708 
14.000000 84.000000 18.535746 
15.000000 84.000000 19.369202 
16.000000 84.000000 20.556826 
17.000000 84.000000 21.922709 
18.000000 84.000000 23.196377 
19.000000 84.000000 24.506348 
20.000000 84.000000 25.027966 
21.000000 84.000000 25.285889 
22.000000 84.000000 25.603907 
23.000000 84.000000 26.113869 
24.000000 84.000000 26.623833 
25.000000 84.000000 26.151730 
26.000000 84.000000 25.679626 
27.000000 84.000000 25.207523 
28.000000 84.000000 26.364656 
29.000000 84.000000 27.521790 
30.000000 84.000000 28.436134 
31.000000 84.000000 29.350477 
32.000000 84.000000 28.359245 
33.000000 84.000000 27.368013 
34.000000 84.000000 26.376781 
35.000000 84.000000 25.385550 
36.000000 84.000000 25.518505 
37.000000 84.000000 25.651461 
38.000000 84.000000 25.784416 
39.000000 84.000000 25.917372 
40.000000 84.000000 26.050327 
41.000000 84.000000 26.256639 
42.000000 84.000000 26.462952 
43.000000 84.000000 25.837980 
44.000000 84.000000 25.213009 
45.000000 84.000000 24.588037 
46.000000 84.000000 23.578512 
47.000000 84.000000 22.184431 
48.000000 84.000000 20.790350 
49.000000 84.000000 20.974056 
50.000000 84.000000 21.442261 
51.000000 84.000000 20.779600 
52.000000 84.000000 21.081264 
53.000000 84.000000 21.382927 
54.000000 84.000000 21.581774 
55.000000 84.000000 22.113224 
56.000000 84.000000 22.746740 
57.000000 84.000000 23.877241 
0.000000 85.000000 7.023996 
1.000000 85.000000 7.318721 
2.000000 85.000000 7.613447 
3.000000 85.000000 7.908173 
4.000000 85.000000 8.202898 
5.000000 85.000000 8.986603 
6.000000 85.000000 9.770308 
7.000000 85.000000 10.554012 
8.000000 85.000000 11.337717 
9.000000 85.000000 12.121422 
10.000000 85.000000 12.905127 
11.000000 85.000000 13.954689 
12.000000 85.000000 15.004251 
13.000000 85.000000 16.612288 
14.000000 85.000000 17.445744 
15.000000 85.000000 18.279200 
16.000000 85.000000 19.377697 
17.000000 85.000000 20.654451 
18.000000 85.000000 21.835901 
19.000000 85.000000 23.423876 
20.000000 85.000000 25.289850 
21.000000 85.000000 25.192833 
22.000000 85.000000 25.095816 
23.000000 85.000000 25.812979 
24.000000 85.000000 27.297735 
25.000000 85.000000 28.062799 
26.000000 85.000000 27.721500 
27.000000 85.000000 27.249397 
28.000000 85.000000 28.406532 
29.000000 85.000000 28.679890 
30.000000 85.000000 28.942719 
31.000000 85.000000 29.205547 
32.000000 85.000000 28.272303 
33.000000 85.000000 27.310066 
34.000000 85.000000 26.318832 
35.000000 85.000000 25.534788 
36.000000 85.000000 24.957928 
37.000000 85.000000 25.090883 
38.000000 85.000000 25.223839 
39.000000 85.000000 25.192860 
40.000000 85.000000 24.997944 
41.000000 85.000000 25.076225 
42.000000 85.000000 25.282537 
43.000000 85.000000 24.655075 
44.000000 85.000000 24.027611 
45.000000 85.000000 23.400148 
46.000000 85.000000 22.772686 
47.000000 85.000000 21.301077 
48.000000 85.000000 20.534374 
49.000000 85.000000 19.767673 
50.000000 85.000000 20.520374 
51.000000 85.000000 20.822037 
52.000000 85.000000 21.123701 
53.000000 85.000000 21.425365 
54.000000 85.000000 21.727028 
55.000000 85.000000 22.857529 
56.000000 85.000000 23.988031 
1.000000 86.000000 8.004040 
2.000000 86.000000 8.322177 
3.000000 86.000000 8.616902 
4.000000 86.000000 8.911629 
5.000000 86.000000 9.695333 
6.000000 86.000000 10.479038 
7.000000 86.000000 11.262743 
8.000000 86.000000 12.006637 
9.000000 86.000000 12.750530 
10.000000 86.000000 13.494424 
11.000000 86.000000 14.066312 
12.000000 86.000000 14.688831 
13.000000 86.000000 15.522287 
14.000000 86.000000 16.355743 
15.000000 86.000000 17.189199 
16.000000 86.000000 18.287697 
17.000000 86.000000 19.386192 
18.000000 86.000000 20.475428 
19.000000 86.000000 22.021614 
20.000000 86.000000 23.567799 
21.000000 86.000000 24.284962 
22.000000 86.000000 25.002125 
23.000000 86.000000 26.231016 
24.000000 86.000000 27.971638 
25.000000 86.000000 29.712257 
26.000000 86.000000 29.501766 
27.000000 86.000000 29.291273 
28.000000 86.000000 29.564632 
29.000000 86.000000 29.837990 
30.000000 86.000000 29.726793 
31.000000 86.000000 29.615597 
32.000000 86.000000 28.529825 
33.000000 86.000000 27.395355 
34.000000 86.000000 26.260885 
35.000000 86.000000 25.684025 
36.000000 86.000000 25.107166 
37.000000 86.000000 24.530306 
38.000000 86.000000 24.335390 
39.000000 86.000000 24.140474 
40.000000 86.000000 23.945559 
41.000000 86.000000 23.887241 
42.000000 86.000000 24.102123 
43.000000 86.000000 23.658022 
44.000000 86.000000 23.213921 
45.000000 86.000000 22.769821 
46.000000 86.000000 21.581467 
47.000000 86.000000 20.581272 
48.000000 86.000000 20.721176 
49.000000 86.000000 20.861080 
50.000000 86.000000 21.307384 
51.000000 86.000000 21.609047 
52.000000 86.000000 21.910709 
53.000000 86.000000 21.837818 
54.000000 86.000000 22.968319 
55.000000 86.000000 24.098822 
2.000000 87.000000 8.984084 
3.000000 87.000000 9.243451 
4.000000 87.000000 9.620358 
5.000000 87.000000 10.364252 
6.000000 87.000000 11.108146 
7.000000 87.000000 11.852039 
8.000000 87.000000 12.595934 
9.000000 87.000000 13.339828 
10.000000 87.000000 14.083721 
11.000000 87.000000 14.604979 
12.000000 87.000000 15.356933 
13.000000 87.000000 16.137348 
14.000000 87.000000 16.917763 
15.000000 87.000000 17.601738 
16.000000 87.000000 18.598042 
17.000000 87.000000 19.613314 
18.000000 87.000000 20.696678 
19.000000 87.000000 21.756561 
20.000000 87.000000 23.059597 
21.000000 87.000000 24.191271 
22.000000 87.000000 25.164299 
23.000000 87.000000 26.904919 
24.000000 87.000000 28.645538 
25.000000 87.000000 30.386160 
26.000000 87.000000 31.151224 
27.000000 87.000000 31.330315 
28.000000 87.000000 30.868896 
29.000000 87.000000 30.407478 
30.000000 87.000000 30.216564 
31.000000 87.000000 30.025648 
32.000000 87.000000 28.988575 
33.000000 87.000000 28.133554 
34.000000 87.000000 27.278534 
35.000000 87.000000 26.562593 
36.000000 87.000000 25.985733 
37.000000 87.000000 25.118874 
38.000000 87.000000 24.513720 
39.000000 87.000000 23.908566 
40.000000 87.000000 23.303413 
41.000000 87.000000 22.698259 
42.000000 87.000000 23.188158 
43.000000 87.000000 23.211056 
44.000000 87.000000 22.766954 
45.000000 87.000000 21.578600 
46.000000 87.000000 20.390245 
47.000000 87.000000 20.043627 
48.000000 87.000000 20.727215 
49.000000 87.000000 21.410805 
50.000000 87.000000 22.094393 
51.000000 87.000000 21.040665 
52.000000 87.000000 21.948608 
53.000000 87.000000 23.079109 
54.000000 87.000000 24.209612 
2.000000 88.000000 9.205813 
3.000000 88.000000 9.964128 
4.000000 88.000000 10.164725 
5.000000 88.000000 10.936926 
6.000000 88.000000 11.684144 
7.000000 88.000000 12.431363 
8.000000 88.000000 13.178581 
9.000000 88.000000 13.925800 
10.000000 88.000000 14.673018 
11.000000 88.000000 15.423038 
12.000000 88.000000 15.950297 
13.000000 88.000000 16.646328 
14.000000 88.000000 17.426743 
15.000000 88.000000 18.014277 
16.000000 88.000000 18.908388 
17.000000 88.000000 19.840435 
18.000000 88.000000 20.917929 
19.000000 88.000000 21.977812 
20.000000 88.000000 23.037697 
21.000000 88.000000 24.097580 
22.000000 88.000000 25.838200 
23.000000 88.000000 27.578821 
24.000000 88.000000 29.319441 
25.000000 88.000000 31.060062 
26.000000 88.000000 32.800682 
27.000000 88.000000 31.681458 
28.000000 88.000000 31.438385 
29.000000 88.000000 30.976969 
30.000000 88.000000 30.786053 
31.000000 88.000000 29.931515 
32.000000 88.000000 29.259510 
33.000000 88.000000 28.627039 
34.000000 88.000000 28.034100 
35.000000 88.000000 27.441160 
36.000000 88.000000 26.398951 
37.000000 88.000000 25.356743 
38.000000 88.000000 24.751589 
39.000000 88.000000 24.146435 
40.000000 88.000000 23.541283 
41.000000 88.000000 22.881823 
42.000000 88.000000 22.283714 
43.000000 88.000000 22.764090 
44.000000 88.000000 21.575735 
45.000000 88.000000 20.387381 
46.000000 88.000000 19.199026 
47.000000 88.000000 19.505980 
48.000000 88.000000 20.189569 
49.000000 88.000000 20.004499 
50.000000 88.000000 21.390467 
51.000000 88.000000 22.059399 
52.000000 88.000000 23.189899 
53.000000 88.000000 24.320402 
3.000000 89.000000 10.185858 
4.000000 89.000000 10.944173 
5.000000 89.000000 11.559653 
6.000000 89.000000 12.253493 
7.000000 89.000000 13.000711 
8.000000 89.000000 13.747931 
9.000000 89.000000 14.577408 
10.000000 89.000000 15.489144 
11.000000 89.000000 16.016403 
12.000000 89.000000 16.543663 
13.000000 89.000000 17.155306 
14.000000 89.000000 17.839281 
15.000000 89.000000 18.426815 
16.000000 89.000000 19.218735 
17.000000 89.000000 20.067554 
18.000000 89.000000 21.139179 
19.000000 89.000000 22.199062 
20.000000 89.000000 23.255447 
21.000000 89.000000 24.416416 
22.000000 89.000000 25.744066 
23.000000 89.000000 26.958755 
24.000000 89.000000 28.699375 
25.000000 89.000000 30.439997 
26.000000 89.000000 31.551071 
27.000000 89.000000 32.032600 
28.000000 89.000000 31.789528 
29.000000 89.000000 31.546457 
30.000000 89.000000 30.874454 
31.000000 89.000000 30.202450 
32.000000 89.000000 29.530445 
33.000000 89.000000 28.858442 
34.000000 89.000000 28.265503 
35.000000 89.000000 27.585297 
36.000000 89.000000 26.636820 
37.000000 89.000000 25.594612 
38.000000 89.000000 24.989458 
39.000000 89.000000 24.384304 
40.000000 89.000000 23.738422 
41.000000 89.000000 23.065386 
42.000000 89.000000 21.388794 
43.000000 89.000000 21.869169 
44.000000 89.000000 20.680815 
45.000000 89.000000 19.492460 
46.000000 89.000000 19.230398 
47.000000 89.000000 18.968334 
48.000000 89.000000 20.354301 
49.000000 89.000000 21.501257 
50.000000 89.000000 22.170189 
51.000000 89.000000 23.300690 
4.000000 90.000000 11.165901 
5.000000 90.000000 12.025021 
6.000000 90.000000 12.797541 
7.000000 90.000000 13.570061 
8.000000 90.000000 14.252432 
9.000000 90.000000 14.934802 
